309266.51 6143485.07 467.21 3 1 5
309266.27 6143485.45 464.53 3 2 5
309265.70 6143486.34 458.32 3 3 5
309266.51 6143484.90 467.28 4 1 5
309266.19 6143485.40 463.81 4 2 5
309266.09 6143485.56 462.69 4 3 5
309265.68 6143486.19 458.20 4 4 5
309266.45 6143484.81 466.80 4 1 5
309266.22 6143485.19 464.16 4 2 5
309266.11 6143485.36 462.99 4 3 5
309265.69 6143486.01 458.32 4 4 5
309266.46 6143484.66 466.82 5 1 5
309266.34 6143484.84 465.50 5 2 5
309266.23 6143485.00 464.35 5 3 5
309266.05 6143485.29 462.35 5 4 5
309265.69 6143485.86 458.29 5 5 5
309266.33 6143484.69 465.53 3 1 5
309266.09 6143485.06 462.87 3 2 5
309265.99 6143485.21 461.77 3 3 5
309266.29 6143484.58 465.11 3 1 5
309266.20 6143484.71 464.22 3 2 5
309266.04 6143484.96 462.39 3 3 5
309266.29 6143484.42 465.22 2 1 5
309265.65 6143485.38 458.22 2 2 5
309266.33 6143484.17 465.82 3 1 5
309266.10 6143484.53 463.23 3 2 5
309266.01 6143484.66 462.30 3 3 5
309266.33 6143484.01 465.90 3 1 5
309265.61 6143485.10 457.91 3 2 5
309265.48 6143485.29 456.51 3 3 1
309266.31 6143483.87 465.76 4 1 5
309265.98 6143484.36 462.15 4 2 5
309265.59 6143484.94 457.81 4 3 5
309265.40 6143485.23 455.75 4 4 1
309266.28 6143483.75 465.50 4 1 5
309265.97 6143484.21 462.12 4 2 5
309265.57 6143484.79 457.72 4 3 5
309265.32 6143485.18 454.91 4 4 2
309266.23 6143483.66 465.05 5 1 5
309266.17 6143483.75 464.41 5 2 5
309266.06 6143483.91 463.18 5 3 5
309265.92 6143484.11 461.66 5 4 5
309265.31 6143485.00 454.94 5 5 2
309266.22 6143483.52 465.00 4 1 5
309266.17 6143483.58 464.55 4 2 5
309266.07 6143483.73 463.42 4 3 5
309265.29 6143484.87 454.82 4 4 2
309266.34 6143483.17 466.49 3 1 5
309266.23 6143483.34 465.21 3 2 5
309265.28 6143484.71 454.77 3 3 2
309266.34 6143483.02 466.51 3 1 5
309266.23 6143483.17 465.29 3 2 5
309265.26 6143484.55 454.72 3 3 2
309266.34 6143482.84 466.62 1 1 5
309266.31 6143482.72 466.39 2 1 5
309265.24 6143484.22 454.66 2 2 2
309266.28 6143482.59 466.20 3 1 5
309266.16 6143482.76 464.89 3 2 5
309265.23 6143484.07 454.64 3 3 2
309266.26 6143482.46 466.00 4 1 5
309266.02 6143482.80 463.36 4 2 5
309265.85 6143483.02 461.60 4 3 5
309265.21 6143483.92 454.50 4 4 2
309266.01 6143482.63 463.42 2 1 5
309265.19 6143483.75 454.48 2 2 2
309266.20 6143482.20 465.58 2 1 5
309265.18 6143483.60 454.39 2 2 2
309266.20 6143482.04 465.67 3 1 5
309265.80 6143482.58 461.31 3 2 5
309265.16 6143483.44 454.32 3 3 2
309266.19 6143481.88 465.68 2 1 5
309265.15 6143483.29 454.28 2 2 2
309266.17 6143481.75 465.48 2 1 5
309265.13 6143483.13 454.19 2 2 2
309266.17 6143481.59 465.61 2 1 5
309265.12 6143482.98 454.12 2 2 2
309266.15 6143481.44 465.46 2 1 5
309265.10 6143482.81 454.06 2 2 2
309266.12 6143481.31 465.28 2 1 5
309265.08 6143482.67 453.96 2 2 2
309265.07 6143482.50 453.88 1 1 2
309265.05 6143482.35 453.80 1 1 2
309265.04 6143482.19 453.77 1 1 2
309265.02 6143482.03 453.71 1 1 2
309265.01 6143481.86 453.70 1 1 2
309265.96 6143480.51 464.13 2 1 5
309264.99 6143481.72 453.57 2 2 2
309265.96 6143480.36 464.13 3 1 5
309265.88 6143480.45 463.33 3 2 5
309264.98 6143481.56 453.51 3 3 2
309265.97 6143480.17 464.34 2 1 5
309264.97 6143481.40 453.48 2 2 2
309265.89 6143480.10 463.60 2 1 5
309264.96 6143481.23 453.46 2 2 2
309264.95 6143481.06 453.52 1 1 2
309264.93 6143480.90 453.43 1 1 2
309266.05 6143479.41 465.66 1 1 5
309265.35 6143480.07 458.15 2 1 5
309264.91 6143480.58 453.39 2 2 2
309265.34 6143479.91 458.14 2 1 5
309264.91 6143480.41 453.44 2 2 2
309265.66 6143479.38 461.62 3 1 5
309265.32 6143479.76 458.04 3 2 5
309264.91 6143480.24 453.51 3 3 2
309265.31 6143479.60 457.95 2 1 5
309264.91 6143480.06 453.67 2 2 2
309265.30 6143479.44 457.95 2 1 5
309264.91 6143479.89 453.70 2 2 2
309265.84 6143478.68 463.84 3 1 5
309265.29 6143479.28 457.92 3 2 5
309264.91 6143479.72 453.80 3 3 2
309265.81 6143478.55 463.63 3 1 5
309265.27 6143479.13 457.85 3 2 5
309264.90 6143479.55 453.80 3 3 2
309265.79 6143478.40 463.49 3 1 5
309265.24 6143479.00 457.64 3 2 5
309264.90 6143479.37 453.89 3 3 2
309264.90 6143479.19 454.01 1 1 2
309264.89 6143479.03 454.03 1 1 2
309264.89 6143478.86 454.08 1 1 2
309265.70 6143477.83 462.93 2 1 5
309264.88 6143478.69 454.11 2 2 2
309265.86 6143477.50 464.78 3 1 5
309265.67 6143477.69 462.71 3 2 5
309264.87 6143478.52 454.15 3 3 2
309265.85 6143477.35 464.69 3 1 5
309265.10 6143478.12 456.68 3 2 5
309264.86 6143478.37 454.11 3 3 2
309265.80 6143477.23 464.30 3 1 5
309265.10 6143477.95 456.76 3 2 5
309264.85 6143478.20 454.13 3 3 2
309265.20 6143477.67 457.99 3 1 5
309265.11 6143477.77 456.93 3 2 5
309264.84 6143478.04 454.10 3 3 2
309265.61 6143477.10 462.39 4 1 5
309265.20 6143477.50 458.05 4 2 5
309265.06 6143477.65 456.51 4 3 5
309264.84 6143477.87 454.13 4 4 2
309265.58 6143476.96 462.21 3 1 5
309265.17 6143477.36 457.85 3 2 5
309264.83 6143477.70 454.20 3 3 2
309265.53 6143476.85 461.72 2 1 5
309264.82 6143477.54 454.19 2 2 2
309265.51 6143476.69 461.67 2 1 5
309264.81 6143477.38 454.14 2 2 2
309265.81 6143476.25 464.83 2 1 5
309264.81 6143477.22 454.12 2 2 2
309265.79 6143476.11 464.72 2 1 5
309264.80 6143477.05 454.11 2 2 2
309265.77 6143475.96 464.63 2 1 5
309264.78 6143476.89 453.97 2 2 2
309265.79 6143475.79 464.86 3 1 5
309265.37 6143476.17 460.41 3 2 5
309264.77 6143476.73 454.02 3 3 2
309265.79 6143475.62 464.96 3 1 5
309265.37 6143476.01 460.50 3 2 5
309264.76 6143476.57 454.02 3 3 2
309265.73 6143475.52 464.46 2 1 5
309264.76 6143476.40 454.05 2 2 2
309264.75 6143476.24 454.07 1 1 2
309264.75 6143476.07 454.12 1 1 2
309264.74 6143475.89 454.15 1 1 2
309264.73 6143475.74 454.14 1 1 2
309264.73 6143475.56 454.24 1 1 2
309264.71 6143475.41 454.17 1 1 2
309264.71 6143475.24 454.18 1 1 2
309265.29 6143474.58 460.51 2 1 5
309264.71 6143475.07 454.28 2 2 2
309264.70 6143474.91 454.31 1 1 2
309265.25 6143474.29 460.28 2 1 5
309264.70 6143474.74 454.34 2 2 2
309265.22 6143474.15 460.04 2 1 5
309264.69 6143474.58 454.37 2 2 2
309265.23 6143473.98 460.19 2 1 5
309264.68 6143474.41 454.35 2 2 2
309265.51 6143473.59 463.30 3 1 5
309265.24 6143473.80 460.42 3 2 5
309264.69 6143474.23 454.55 3 3 1
309265.51 6143473.42 463.37 3 1 5
309265.24 6143473.64 460.55 3 2 5
309264.67 6143474.07 454.44 3 3 1
309265.25 6143473.47 460.66 2 1 5
309264.64 6143473.92 454.29 2 2 2
309264.63 6143473.77 454.23 1 1 2
309264.62 6143473.60 454.25 1 1 2
309264.61 6143473.44 454.21 1 1 2
309265.14 6143472.88 459.94 2 1 5
309264.60 6143473.28 454.17 2 2 2
309264.59 6143473.11 454.17 1 1 2
309264.58 6143472.95 454.18 1 1 2
309264.58 6143472.78 454.25 1 1 2
309264.57 6143472.62 454.27 1 1 2
309265.19 6143472.03 460.91 2 1 5
309264.56 6143472.45 454.30 2 2 2
309265.15 6143471.90 460.52 2 1 5
309264.56 6143472.29 454.33 2 2 2
309265.15 6143471.73 460.64 2 1 5
309264.95 6143471.86 458.58 2 2 5
309265.11 6143471.59 460.32 3 1 5
309264.74 6143471.84 456.45 3 2 5
309264.56 6143471.95 454.51 3 3 2
309265.07 6143471.46 459.99 2 1 5
309264.56 6143471.78 454.59 2 2 2
309265.11 6143471.27 460.49 2 1 5
309264.55 6143471.62 454.61 2 2 2
309264.55 6143471.46 454.67 1 1 2
309264.54 6143471.29 454.70 1 1 2
309265.26 6143470.69 462.34 2 1 5
309264.54 6143471.11 454.82 2 2 2
309265.26 6143470.53 462.50 2 1 5
309264.54 6143470.95 454.94 2 2 2
309264.54 6143470.78 455.00 1 1 2
309264.55 6143470.61 455.16 1 1 2
309264.55 6143470.45 455.31 1 1 2
309264.54 6143470.27 455.32 1 1 2
309264.55 6143470.10 455.46 1 1 1
309265.11 6143469.65 461.39 2 1 5
309264.53 6143469.95 455.37 2 2 2
309265.08 6143469.50 461.20 2 1 5
309264.52 6143469.78 455.37 2 2 2
309265.11 6143469.32 461.60 2 1 5
309264.51 6143469.63 455.33 2 2 2
309265.12 6143469.15 461.79 3 1 5
309265.04 6143469.20 460.93 3 2 5
309264.50 6143469.46 455.35 3 3 2
309264.49 6143469.30 455.33 1 1 2
309264.49 6143469.14 455.38 1 1 2
309264.47 6143468.98 455.32 1 1 2
309264.47 6143468.82 455.34 1 1 2
309265.14 6143468.35 462.44 2 1 5
309264.46 6143468.66 455.36 2 2 2
309264.45 6143468.49 455.30 1 1 2
309265.02 6143468.08 461.36 2 1 5
309264.44 6143468.33 455.33 2 2 2
309265.06 6143467.90 461.92 2 1 5
309264.43 6143468.17 455.37 2 2 2
309265.13 6143467.72 462.65 2 1 5
309264.43 6143468.00 455.43 2 2 2
309265.00 6143467.61 461.38 4 1 5
309264.86 6143467.67 459.84 4 2 5
309264.72 6143467.72 458.39 4 3 5
309264.43 6143467.85 455.40 4 4 1
309264.99 6143467.45 461.34 4 1 5
309264.84 6143467.52 459.77 4 2 5
309264.69 6143467.57 458.26 4 3 5
309264.42 6143467.68 455.36 4 4 1
309264.93 6143467.32 460.80 3 1 5
309264.67 6143467.42 458.10 3 2 5
309264.41 6143467.52 455.34 3 3 2
309264.65 6143467.26 457.93 1 1 5
309265.13 6143466.92 463.06 2 1 5
309264.61 6143467.11 457.69 2 2 5
309265.10 6143466.78 462.84 2 1 5
309264.57 6143466.97 457.36 2 2 5
309265.12 6143466.61 463.16 2 1 5
309264.54 6143466.81 457.11 2 2 5
309264.50 6143466.66 456.80 1 1 1
309265.01 6143466.34 462.16 2 1 5
309264.46 6143466.52 456.46 2 2 1
309265.03 6143466.17 462.44 2 1 5
309264.42 6143466.36 456.14 2 2 1
309265.06 6143466.00 462.82 3 1 5
309264.49 6143466.17 456.93 3 2 1
309264.39 6143466.21 455.90 3 3 1
309265.06 6143465.85 462.97 3 1 5
309264.46 6143466.02 456.79 3 2 1
309264.32 6143466.06 455.26 3 3 1
309265.06 6143465.69 463.00 3 1 5
309264.89 6143465.74 461.30 3 2 5
309264.46 6143465.86 456.83 3 3 5
309264.99 6143465.55 462.35 4 1 5
309264.90 6143465.57 461.50 4 2 5
309264.44 6143465.70 456.72 4 3 5
309264.37 6143465.72 455.96 4 4 1
309264.90 6143465.42 461.57 4 1 5
309264.60 6143465.49 458.41 4 2 5
309264.48 6143465.53 457.18 4 3 5
309264.35 6143465.56 455.83 4 4 1
309264.44 6143465.38 456.94 1 1 5
309264.48 6143465.20 457.36 1 1 5
309264.55 6143465.03 458.22 2 1 5
309264.23 6143465.10 454.90 2 2 1
309264.20 6143464.94 454.67 1 1 1
309264.16 6143464.79 454.40 1 1 2
309264.15 6143464.62 454.33 1 1 2
309264.81 6143464.32 461.26 2 1 5
309264.13 6143464.46 454.26 2 2 2
309264.79 6143464.17 461.15 2 1 5
309264.12 6143464.30 454.25 2 2 2
309264.83 6143464.01 461.66 2 1 5
309264.10 6143464.14 454.14 2 2 2
309264.09 6143463.98 454.11 1 1 2
309264.07 6143463.82 454.02 1 1 2
309264.05 6143463.66 453.88 1 1 2
309264.77 6143463.39 461.41 2 1 5
309264.03 6143463.49 453.83 2 2 2
309264.85 6143463.21 462.33 3 1 5
309264.72 6143463.23 460.96 3 2 5
309264.03 6143463.33 453.87 3 3 2
309264.83 6143463.07 462.16 3 1 5
309264.68 6143463.08 460.57 3 2 5
309264.01 6143463.17 453.80 3 3 2
309264.77 6143462.92 461.68 2 1 5
309264.01 6143463.00 453.89 2 2 1
309264.79 6143462.75 461.93 2 1 5
309263.98 6143462.85 453.63 2 2 2
309264.78 6143462.60 461.93 2 1 5
309263.96 6143462.68 453.49 2 2 2
309264.78 6143462.44 461.96 2 1 5
309263.94 6143462.52 453.43 2 2 2
309264.60 6143462.30 460.26 3 1 5
309264.50 6143462.30 459.24 3 2 5
309263.93 6143462.35 453.38 3 3 2
309264.87 6143462.12 463.07 3 1 5
309264.62 6143462.13 460.52 3 2 5
309263.91 6143462.19 453.32 3 3 2
309264.89 6143461.96 463.43 3 1 5
309264.53 6143461.99 459.72 3 2 5
309263.90 6143462.03 453.28 3 3 2
309264.89 6143461.80 463.46 3 1 5
309264.59 6143461.83 460.38 3 2 5
309263.88 6143461.87 453.19 3 3 2
309264.88 6143461.66 463.44 2 1 5
309263.87 6143461.71 453.19 2 2 2
309264.83 6143461.50 463.08 2 1 5
309263.86 6143461.53 453.12 2 2 2
309264.83 6143461.34 463.16 4 1 5
309264.66 6143461.35 461.39 4 2 5
309264.01 6143461.37 454.75 4 3 1
309263.85 6143461.38 453.09 4 4 2
309264.67 6143461.19 461.58 3 1 5
309264.40 6143461.20 458.87 3 2 5
309263.83 6143461.21 453.03 3 3 2
309264.68 6143461.03 461.76 2 1 5
309263.82 6143461.05 453.05 2 2 2
309264.93 6143460.88 464.41 3 1 5
309264.65 6143460.88 461.51 3 2 5
309263.82 6143460.89 453.07 3 3 2
309264.90 6143460.74 464.14 4 1 5
309264.69 6143460.74 462.02 4 2 5
309264.31 6143460.73 458.14 4 3 5
309263.81 6143460.73 453.07 4 4 2
309264.92 6143460.59 464.45 3 1 5
309264.66 6143460.58 461.87 3 2 5
309264.27 6143460.57 457.88 3 3 5
309264.83 6143460.43 463.66 3 1 5
309264.66 6143460.43 461.86 3 2 5
309263.78 6143460.40 453.02 3 3 2
309264.80 6143460.28 463.45 3 1 5
309264.65 6143460.26 461.94 3 2 5
309263.78 6143460.24 453.02 3 3 2
309263.77 6143460.08 453.01 1 1 2
309264.78 6143459.96 463.40 4 1 5
309264.62 6143459.96 461.76 4 2 5
309264.47 6143459.94 460.26 4 3 5
309263.76 6143459.91 453.02 4 4 2
309264.78 6143459.81 463.48 4 1 5
309264.64 6143459.80 462.09 4 2 5
309264.47 6143459.79 460.34 4 3 5
309263.75 6143459.74 453.05 4 4 2
309264.76 6143459.65 463.38 4 1 5
309264.65 6143459.64 462.30 4 2 5
309264.44 6143459.63 460.17 4 3 5
309263.74 6143459.58 453.04 4 4 2
309264.65 6143459.49 462.35 2 1 5
309263.73 6143459.41 453.03 2 2 2
309264.63 6143459.33 462.17 2 1 5
309263.72 6143459.26 452.99 2 2 2
309264.59 6143459.18 461.94 2 1 5
309263.71 6143459.09 453.01 2 2 2
309264.29 6143458.99 458.96 2 1 5
309263.70 6143458.92 453.02 2 2 2
309264.26 6143458.82 458.77 2 1 5
309263.70 6143458.76 453.07 2 2 2
309264.47 6143458.69 460.87 3 1 5
309264.22 6143458.66 458.33 3 2 5
309263.70 6143458.60 453.05 3 3 2
309264.47 6143458.54 460.90 3 1 5
309264.28 6143458.52 459.02 3 2 5
309263.69 6143458.44 453.02 3 3 2
309264.46 6143458.38 460.87 3 1 5
309264.34 6143458.36 459.66 3 2 5
309263.68 6143458.27 453.04 3 3 2
309264.49 6143458.23 461.31 4 1 5
309264.28 6143458.20 459.20 4 2 5
309264.16 6143458.17 457.96 4 3 5
309263.67 6143458.11 453.05 4 4 2
309264.49 6143458.07 461.39 2 1 5
309263.66 6143457.94 453.03 2 2 2
309264.49 6143457.92 461.48 4 1 5
309264.38 6143457.90 460.41 4 2 5
309263.93 6143457.83 455.88 4 3 5
309263.65 6143457.78 453.04 4 4 2
309264.48 6143457.77 461.51 2 1 5
309263.64 6143457.61 453.02 2 2 2
309264.48 6143457.61 461.55 2 1 5
309263.64 6143457.45 453.06 2 2 2
309264.50 6143457.46 461.86 2 1 5
309263.63 6143457.29 453.10 2 2 2
309264.47 6143457.30 461.63 2 1 5
309263.72 6143457.14 454.04 2 2 1
309264.44 6143457.13 461.42 3 1 5
309264.06 6143457.05 457.61 3 2 5
309263.63 6143456.96 453.23 3 3 1
309264.45 6143456.98 461.59 4 1 5
309264.34 6143456.96 460.46 4 2 5
309263.70 6143456.82 454.08 4 3 1
309263.61 6143456.79 453.12 4 4 2
309264.38 6143456.81 460.95 4 1 5
309264.07 6143456.74 457.85 4 2 5
309263.68 6143456.65 453.95 4 3 1
309263.60 6143456.63 453.11 4 4 2
309264.42 6143456.67 461.43 5 1 5
309264.33 6143456.64 460.55 5 2 5
309263.79 6143456.52 455.19 5 3 5
309263.67 6143456.49 453.90 5 4 1
309263.59 6143456.47 453.13 5 5 2
309264.40 6143456.51 461.40 3 1 5
309263.91 6143456.39 456.41 3 2 5
309263.58 6143456.30 453.10 3 3 2
309264.41 6143456.36 461.57 3 1 5
309263.96 6143456.24 457.03 3 2 5
309263.58 6143456.14 453.22 3 3 2
309264.42 6143456.20 461.76 4 1 5
309264.07 6143456.11 458.25 4 2 5
309263.96 6143456.08 457.13 4 3 5
309263.91 6143456.06 456.63 4 4 5
309264.04 6143455.95 457.97 3 1 5
309263.90 6143455.90 456.57 3 2 5
309263.56 6143455.81 453.16 3 3 2
309264.15 6143455.82 459.23 5 1 5
309264.05 6143455.79 458.19 5 2 5
309263.90 6143455.75 456.67 5 3 5
309263.77 6143455.71 455.37 5 4 5
309263.54 6143455.64 453.12 5 5 2
309264.14 6143455.66 459.21 4 1 5
309263.91 6143455.59 456.84 4 2 5
309263.76 6143455.55 455.35 4 3 5
309263.53 6143455.48 453.13 4 4 2
309263.89 6143455.43 456.76 3 1 5
309263.75 6143455.38 455.38 3 2 5
309263.52 6143455.32 453.12 3 3 2
309263.87 6143455.27 456.64 2 1 5
309263.52 6143455.16 453.14 2 2 2
309267.22 6143496.98 465.00 3 1 5
309267.17 6143496.93 464.48 2 1 5
309267.23 6143496.61 465.24 2 1 5
309267.21 6143496.47 465.15 2 1 5
309267.20 6143496.32 465.12 3 1 5
309267.01 6143496.76 462.98 3 2 5
309267.02 6143496.55 463.20 2 1 5
309267.02 6143496.38 463.25 2 1 5
309267.01 6143496.22 463.23 2 1 5
309267.00 6143496.06 463.24 2 1 5
309266.60 6143496.99 458.67 2 2 2
309266.59 6143496.83 458.65 1 1 2
309266.59 6143496.67 458.67 1 1 2
309266.58 6143496.49 458.71 1 1 2
309266.57 6143496.31 458.73 1 1 2
309266.56 6143496.15 458.74 1 1 2
309266.55 6143495.99 458.72 1 1 2
309266.55 6143495.82 458.74 1 1 2
309266.54 6143495.66 458.77 1 1 2
309266.53 6143495.50 458.71 1 1 2
309266.51 6143495.34 458.68 1 1 2
309266.50 6143495.18 458.65 1 1 2
309266.51 6143495.01 458.68 1 1 2
309266.49 6143494.86 458.61 1 1 2
309266.48 6143494.70 458.59 1 1 2
309266.47 6143494.54 458.57 1 1 2
309266.62 6143494.04 460.36 2 1 1
309266.47 6143494.36 458.64 2 2 2
309266.55 6143494.01 459.64 2 1 1
309266.46 6143494.19 458.65 2 2 2
309266.44 6143494.04 458.60 1 1 2
309266.43 6143493.88 458.59 1 1 2
309266.43 6143493.71 458.62 1 1 2
309266.42 6143493.56 458.58 1 1 2
309266.58 6143493.02 460.56 2 1 5
309266.40 6143493.39 458.56 2 2 2
309266.39 6143493.23 458.51 1 1 2
309266.38 6143493.07 458.53 1 1 2
309266.37 6143492.91 458.51 1 1 2
309267.09 6143491.28 466.71 2 1 5
309266.36 6143492.75 458.48 2 2 2
309267.08 6143491.11 466.71 2 1 5
309266.35 6143492.60 458.46 2 2 2
309267.09 6143490.93 466.85 2 1 5
309266.34 6143492.44 458.43 2 2 2
309267.07 6143490.79 466.78 2 1 5
309266.33 6143492.27 458.44 2 2 2
309267.05 6143490.66 466.62 2 1 5
309266.33 6143492.10 458.46 2 2 2
309267.07 6143490.46 466.94 3 1 5
309266.63 6143491.31 462.04 3 2 5
309266.31 6143491.94 458.43 3 3 2
309267.04 6143490.34 466.70 3 1 5
309266.62 6143491.16 462.01 3 2 5
309266.31 6143491.77 458.45 3 3 2
309267.07 6143490.12 467.11 2 1 5
309266.30 6143491.61 458.47 2 2 2
309267.06 6143489.95 467.12 3 1 5
309266.61 6143490.82 462.06 3 2 5
309266.29 6143491.45 458.47 3 3 2
309267.05 6143489.81 467.08 2 1 5
309266.59 6143490.69 461.95 2 2 5
309267.05 6143489.62 467.26 2 1 5
309266.55 6143490.59 461.58 2 2 5
309267.03 6143489.49 467.14 3 1 5
309266.73 6143490.07 463.73 3 2 5
309266.49 6143490.53 461.01 3 3 5
309266.99 6143489.40 466.74 2 1 5
309266.71 6143489.92 463.63 2 2 5
309266.97 6143489.26 466.63 3 1 5
309266.47 6143490.20 461.04 3 2 5
309266.24 6143490.64 458.43 3 3 1
309266.97 6143489.11 466.66 4 1 5
309266.80 6143489.42 464.75 4 2 5
309266.70 6143489.61 463.63 4 3 5
309266.24 6143490.47 458.48 4 4 1
309266.95 6143488.96 466.58 5 1 5
309266.79 6143489.26 464.75 5 2 5
309266.65 6143489.51 463.22 5 3 5
309266.57 6143489.66 462.33 5 4 5
309266.23 6143490.30 458.45 5 5 1
309266.94 6143488.80 466.59 3 1 5
309266.67 6143489.31 463.55 3 2 5
309266.37 6143489.85 460.21 3 3 5
309266.69 6143489.10 463.81 3 1 5
309266.35 6143489.72 460.03 3 2 5
309266.21 6143489.97 458.50 3 3 1
309266.89 6143488.55 466.24 4 1 5
309266.80 6143488.72 465.14 4 2 5
309266.60 6143489.08 462.99 4 3 5
309266.21 6143489.81 458.55 4 4 1
309266.89 6143488.39 466.23 2 1 5
309266.20 6143489.63 458.55 2 2 1
309266.95 6143488.11 467.06 1 1 5
309266.96 6143487.93 467.19 2 1 5
309266.86 6143488.10 466.11 2 2 5
309266.94 6143487.78 467.12 3 1 5
309266.75 6143488.12 464.99 3 2 5
309266.19 6143489.12 458.70 3 3 1
309266.95 6143487.60 467.34 3 1 5
309266.74 6143487.97 465.01 3 2 5
309266.17 6143488.97 458.61 3 3 1
309266.93 6143487.46 467.21 3 1 5
309266.34 6143488.50 460.57 3 2 5
309266.15 6143488.82 458.55 3 3 1
309266.91 6143487.34 467.03 3 1 5
309266.37 6143488.27 461.02 3 2 5
309266.14 6143488.66 458.54 3 3 1
309266.88 6143487.21 466.81 3 1 5
309266.34 6143488.15 460.80 3 2 5
309266.14 6143488.48 458.64 3 3 5
309266.33 6143487.98 460.84 2 1 5
309266.13 6143488.34 458.53 2 2 5
309266.11 6143488.18 458.48 1 1 5
309266.92 6143486.63 467.54 2 1 5
309266.10 6143488.03 458.40 2 2 5
309266.91 6143486.49 467.50 3 1 5
309266.63 6143486.95 464.45 3 2 5
309266.08 6143487.88 458.32 3 3 5
309266.90 6143486.34 467.53 4 1 5
309266.73 6143486.62 465.61 4 2 5
309266.63 6143486.78 464.51 4 3 5
309266.07 6143487.72 458.34 4 4 5
309266.89 6143486.18 467.49 3 1 5
309266.62 6143486.63 464.53 3 2 5
309266.07 6143487.55 458.40 3 3 5
309266.60 6143486.49 464.36 3 1 5
309266.47 6143486.71 462.95 3 2 5
309266.07 6143487.36 458.51 3 3 5
309266.53 6143486.44 463.67 3 1 5
309266.29 6143486.83 461.05 3 2 5
309266.06 6143487.21 458.45 3 3 5
309266.88 6143485.70 467.64 4 1 5
309266.79 6143485.85 466.63 4 2 5
309266.52 6143486.28 463.63 4 3 5
309266.03 6143487.07 458.28 4 4 5
309266.86 6143485.56 467.51 3 1 5
309266.60 6143485.98 464.65 3 2 5
309266.02 6143486.92 458.20 3 3 5
309266.85 6143485.41 467.54 3 1 5
309266.54 6143485.90 464.12 3 2 5
309266.01 6143486.76 458.23 3 3 5
309266.82 6143485.28 467.32 4 1 5
309266.53 6143485.75 464.12 4 2 5
309266.25 6143486.20 460.99 4 3 5
309266.00 6143486.60 458.16 4 4 5
309266.78 6143485.19 466.92 4 1 5
309266.53 6143485.58 464.14 4 2 5
309266.41 6143485.76 462.85 4 3 5
309265.99 6143486.44 458.16 4 4 5
309266.64 6143485.24 465.48 4 1 5
309266.52 6143485.43 464.15 4 2 5
309266.40 6143485.62 462.83 4 3 5
309265.98 6143486.28 458.14 4 4 5
309266.77 6143484.86 467.01 5 1 5
309266.63 6143485.09 465.42 5 2 5
309266.51 6143485.27 464.13 5 3 5
309266.38 6143485.47 462.71 5 4 5
309265.97 6143486.12 458.17 5 5 5
309266.77 6143484.71 467.00 5 1 5
309266.63 6143484.92 465.51 5 2 5
309266.41 6143485.27 463.00 5 3 5
309266.35 6143485.37 462.31 5 4 5
309265.98 6143485.95 458.23 5 5 5
309266.64 6143484.75 465.64 2 1 5
309266.36 6143485.17 462.62 2 2 5
309266.63 6143484.59 465.66 4 1 5
309266.30 6143485.10 462.01 4 2 5
309266.22 6143485.22 461.09 4 3 5
309265.96 6143485.62 458.23 4 4 5
309266.65 6143484.40 465.95 2 1 5
309266.39 6143484.78 463.10 2 2 5
309266.55 6143484.38 464.98 3 1 5
309266.47 6143484.49 464.11 3 2 5
309265.94 6143485.29 458.28 3 3 5
309266.46 6143484.35 464.03 1 1 5
309266.43 6143484.22 463.80 2 1 5
309265.77 6143485.20 456.56 2 2 1
309266.38 6143484.13 463.36 3 1 5
309266.28 6143484.27 462.29 3 2 5
309265.75 6143485.05 456.43 3 3 1
309266.40 6143483.92 463.67 2 1 5
309266.27 6143484.11 462.23 2 2 5
309266.62 6143483.43 466.20 4 1 5
309266.54 6143483.55 465.28 4 2 5
309266.40 6143483.75 463.74 4 3 5
309265.69 6143484.78 456.02 4 4 1
309266.60 6143483.31 466.04 3 1 5
309266.25 6143483.82 462.18 3 2 5
309265.67 6143484.65 455.87 3 3 1
309266.61 6143483.12 466.31 2 1 5
309265.63 6143484.52 455.54 2 2 1
309266.63 6143482.93 466.58 3 1 5
309266.20 6143483.53 461.90 3 2 5
309265.58 6143484.42 455.09 3 3 1
309266.62 6143482.78 466.52 3 1 5
309266.45 6143483.02 464.64 3 2 5
309265.56 6143484.28 454.91 3 3 1
309266.59 6143482.64 466.36 2 1 5
309266.44 6143482.86 464.71 2 2 5
309266.45 6143482.69 464.84 4 1 5
309266.30 6143482.90 463.20 4 2 5
309266.12 6143483.14 461.29 4 3 5
309265.53 6143483.97 454.80 4 4 1
309266.52 6143482.42 465.72 4 1 5
309266.45 6143482.52 464.95 4 2 5
309266.11 6143482.98 461.25 4 3 5
309265.51 6143483.81 454.67 4 4 2
309266.46 6143482.34 465.12 2 1 5
309265.49 6143483.66 454.60 2 2 1
309266.46 6143482.16 465.26 2 1 5
309265.47 6143483.50 454.49 2 2 1
309266.48 6143481.97 465.61 3 1 5
309266.15 6143482.41 462.01 3 2 5
309265.46 6143483.36 454.37 3 3 2
309266.49 6143481.80 465.75 3 1 5
309266.13 6143482.28 461.80 3 2 5
309265.44 6143483.20 454.28 3 3 2
309266.47 6143481.66 465.64 2 1 5
309265.42 6143483.05 454.20 2 2 2
309266.45 6143481.51 465.55 2 1 5
309265.41 6143482.89 454.15 2 2 2
309265.39 6143482.73 454.08 1 1 2
309265.38 6143482.58 454.03 1 1 2
309265.36 6143482.42 453.96 1 1 2
309265.34 6143482.27 453.85 1 1 2
309265.33 6143482.10 453.82 1 1 2
309265.31 6143481.95 453.71 1 1 2
309265.31 6143481.78 453.73 1 1 2
309266.26 6143480.44 464.14 2 1 5
309265.29 6143481.63 453.64 2 2 2
309265.28 6143481.47 453.60 1 1 2
309266.18 6143480.19 463.55 2 1 5
309265.26 6143481.31 453.55 2 2 2
309266.19 6143480.01 463.75 2 1 5
309265.25 6143481.14 453.53 2 2 2
309266.21 6143479.83 464.04 2 1 5
309265.24 6143480.99 453.49 2 2 2
309265.77 6143480.18 459.38 2 1 5
309265.23 6143480.82 453.48 2 2 2
309265.77 6143480.01 459.45 2 1 5
309265.22 6143480.66 453.45 2 2 2
309265.75 6143479.86 459.35 2 1 5
309265.21 6143480.48 453.50 2 2 2
309265.43 6143480.06 455.98 2 1 5
309265.21 6143480.31 453.57 2 2 2
309265.96 6143479.28 461.80 2 1 5
309265.20 6143480.15 453.57 2 2 2
309266.15 6143478.90 463.89 3 1 5
309265.44 6143479.70 456.29 3 2 5
309265.20 6143479.98 453.68 3 3 2
309266.17 6143478.71 464.29 2 1 5
309265.20 6143479.80 453.71 2 2 2
309266.17 6143478.55 464.34 2 1 5
309265.19 6143479.64 453.69 2 2 2
309266.10 6143478.46 463.64 2 1 5
309265.18 6143479.48 453.72 2 2 2
309266.10 6143478.30 463.75 2 1 5
309265.17 6143479.30 453.76 2 2 2
309266.09 6143478.14 463.71 2 1 5
309265.17 6143479.13 453.84 2 2 2
309266.00 6143478.07 462.89 3 1 5
309265.52 6143478.58 457.69 3 2 5
309265.16 6143478.97 453.83 3 3 2
309266.01 6143477.90 463.02 2 1 5
309265.51 6143478.42 457.70 2 2 5
309265.98 6143477.76 462.82 3 1 5
309265.50 6143478.27 457.65 3 2 5
309265.16 6143478.63 454.00 3 3 2
309265.49 6143478.10 457.69 1 1 5
309265.73 6143477.69 460.29 3 1 5
309265.48 6143477.94 457.65 3 2 5
309265.15 6143478.29 454.06 3 3 2
309265.47 6143477.79 457.59 2 1 5
309265.13 6143478.13 454.03 2 2 2
309265.40 6143477.69 456.95 3 1 5
309265.29 6143477.80 455.74 3 2 1
309265.12 6143477.97 453.95 3 3 2
309265.91 6143477.01 462.50 3 1 5
309265.24 6143477.67 455.35 3 2 1
309265.12 6143477.80 454.01 3 3 2
309265.88 6143476.87 462.35 2 1 5
309265.11 6143477.64 454.02 2 2 2
309265.87 6143476.72 462.28 2 1 5
309265.09 6143477.48 453.90 2 2 2
309265.82 6143476.60 461.86 1 1 5
309266.07 6143476.20 464.49 3 1 5
309265.35 6143476.89 456.75 3 2 5
309265.08 6143477.15 453.89 3 3 2
309266.09 6143476.03 464.77 2 1 5
309265.06 6143477.00 453.76 2 2 2
309266.08 6143475.87 464.81 2 1 5
309265.05 6143476.83 453.78 2 2 2
309266.06 6143475.73 464.67 3 1 5
309265.67 6143476.08 460.54 3 2 5
309265.04 6143476.67 453.80 3 3 2
309266.05 6143475.57 464.62 2 1 5
309265.69 6143475.91 460.76 2 2 5
309265.04 6143476.33 453.91 1 1 2
309265.03 6143476.16 453.98 1 1 2
309265.02 6143476.00 453.98 1 1 2
309265.02 6143475.83 453.99 1 1 2
309265.00 6143475.67 453.95 1 1 2
309264.99 6143475.51 453.93 1 1 2
309264.99 6143475.34 454.04 1 1 2
309264.99 6143475.17 454.05 1 1 2
309264.99 6143475.00 454.19 1 1 2
309266.00 6143474.00 465.04 2 1 5
309264.97 6143474.84 454.10 2 2 2
309265.99 6143473.85 465.03 3 1 5
309265.34 6143474.37 458.07 3 2 5
309264.96 6143474.68 454.06 3 3 2
309266.07 6143473.63 465.95 4 1 5
309265.54 6143474.04 460.35 4 2 5
309265.33 6143474.21 458.07 4 3 5
309264.96 6143474.51 454.15 4 4 2
309266.08 6143473.46 466.15 3 1 5
309265.51 6143473.90 460.11 3 2 5
309264.95 6143474.35 454.11 3 3 2
309265.55 6143473.71 460.57 3 1 5
309265.48 6143473.77 459.85 3 2 5
309264.95 6143474.17 454.28 3 3 1
309265.49 6143473.59 460.02 2 1 5
309264.94 6143474.01 454.28 2 2 1
309265.47 6143473.44 459.95 2 1 5
309264.92 6143473.86 454.09 2 2 1
309265.46 6143473.29 459.90 2 1 5
309264.91 6143473.69 454.11 2 2 1
309265.45 6143473.13 459.88 2 1 5
309264.90 6143473.53 454.09 2 2 1
309265.44 6143472.97 459.86 2 1 5
309264.88 6143473.37 454.03 2 2 2
309265.43 6143472.82 459.87 2 1 5
309264.88 6143473.21 454.03 2 2 2
309265.42 6143472.66 459.87 2 1 5
309264.86 6143473.05 453.99 2 2 2
309265.41 6143472.49 459.88 2 1 5
309264.86 6143472.89 454.01 2 2 2
309265.41 6143472.34 459.91 2 1 5
309264.85 6143472.72 454.00 2 2 2
309265.40 6143472.18 459.91 2 1 5
309264.85 6143472.56 454.08 2 2 2
309265.32 6143472.07 459.15 2 1 5
309264.84 6143472.38 454.08 2 2 1
309265.44 6143471.82 460.56 2 1 5
309264.84 6143472.22 454.20 2 2 2
309265.43 6143471.66 460.55 2 1 5
309264.83 6143472.05 454.25 2 2 2
309265.42 6143471.50 460.55 2 1 5
309264.83 6143471.88 454.28 2 2 2
309265.36 6143471.38 459.95 2 1 5
309264.83 6143471.71 454.38 2 2 2
309265.40 6143471.19 460.52 2 1 5
309264.82 6143471.55 454.42 2 2 2
309265.39 6143471.04 460.43 2 1 5
309264.82 6143471.38 454.52 2 2 2
309264.81 6143471.22 454.49 1 1 2
309264.82 6143471.04 454.70 1 1 2
309264.81 6143470.89 454.67 1 1 2
309264.81 6143470.71 454.80 1 1 2
309264.82 6143470.54 454.92 1 1 2
309264.83 6143470.37 455.19 1 1 1
309265.06 6143470.08 457.63 2 1 5
309264.82 6143470.21 455.16 2 2 1
309265.07 6143469.91 457.81 2 1 5
309264.82 6143470.04 455.23 2 2 1
309265.05 6143469.75 457.70 2 1 5
309264.81 6143469.88 455.23 2 2 2
309265.45 6143469.38 462.02 2 1 5
309264.80 6143469.71 455.24 2 2 2
309265.45 6143469.22 462.12 2 1 5
309264.79 6143469.55 455.23 2 2 2
309265.43 6143469.07 461.96 2 1 5
309264.79 6143469.39 455.24 2 2 2
309265.05 6143469.10 458.04 2 1 5
309264.78 6143469.22 455.29 2 2 2
309265.04 6143468.94 458.04 2 1 5
309264.77 6143469.07 455.23 2 2 2
309265.48 6143468.56 462.81 2 1 5
309264.76 6143468.91 455.25 2 2 2
309265.16 6143468.56 459.48 2 1 5
309264.75 6143468.74 455.26 2 2 2
309265.14 6143468.41 459.43 2 1 5
309264.74 6143468.57 455.25 2 2 2
309265.37 6143468.14 461.83 3 1 5
309265.12 6143468.24 459.28 3 2 5
309264.73 6143468.42 455.18 3 3 2
309265.33 6143468.00 461.54 2 1 5
309265.10 6143468.09 459.15 2 2 5
309265.32 6143467.84 461.50 3 1 5
309265.06 6143467.95 458.88 3 2 5
309264.71 6143468.10 455.19 3 3 2
309265.44 6143467.63 462.86 3 1 5
309265.28 6143467.70 461.19 3 2 5
309264.71 6143467.92 455.30 3 3 2
309265.27 6143467.54 461.23 2 1 5
309264.70 6143467.76 455.30 2 2 1
309265.45 6143467.32 462.99 3 1 5
309265.27 6143467.38 461.23 3 2 5
309264.71 6143467.61 455.32 3 3 1
309265.45 6143467.16 463.16 2 1 5
309264.69 6143467.44 455.22 2 2 1
309265.46 6143467.00 463.30 2 1 5
309264.67 6143467.28 455.11 2 2 2
309265.42 6143466.85 462.96 2 1 5
309264.66 6143467.13 455.08 2 2 2
309265.40 6143466.71 462.86 2 1 5
309264.65 6143466.97 455.05 2 2 2
309265.43 6143466.53 463.24 2 1 5
309264.64 6143466.80 455.04 2 2 2
309265.41 6143466.38 463.15 2 1 5
309264.62 6143466.64 455.01 2 2 2
309265.34 6143466.25 462.52 2 1 5
309264.61 6143466.47 454.99 2 2 2
309265.31 6143466.10 462.26 2 1 5
309264.60 6143466.32 455.00 2 2 2
309265.39 6143465.91 463.23 3 1 5
309265.28 6143465.95 462.04 3 2 5
309264.73 6143466.11 456.43 3 3 1
309265.38 6143465.76 463.25 2 1 5
309264.71 6143465.96 456.23 2 2 1
309265.34 6143465.61 462.83 4 1 5
309265.19 6143465.66 461.35 4 2 5
309264.76 6143465.78 456.87 4 3 5
309264.65 6143465.82 455.71 4 4 1
309265.33 6143465.46 462.89 3 1 5
309264.96 6143465.56 459.04 3 2 5
309264.68 6143465.64 456.19 3 3 1
309264.98 6143465.39 459.37 4 1 5
309264.87 6143465.43 458.19 4 2 5
309264.71 6143465.47 456.52 4 3 5
309264.52 6143465.52 454.60 4 4 2
309264.92 6143465.25 458.76 3 1 5
309264.72 6143465.30 456.74 3 2 5
309264.53 6143465.35 454.82 3 3 1
309265.01 6143465.07 459.83 2 1 5
309264.90 6143465.09 458.67 2 2 5
309264.94 6143464.92 459.19 1 1 5
309265.04 6143464.74 460.27 3 1 5
309264.96 6143464.76 459.47 3 2 5
309264.46 6143464.87 454.31 3 3 2
309265.06 6143464.58 460.57 3 1 5
309264.70 6143464.66 456.85 3 2 5
309264.44 6143464.71 454.24 3 3 2
309264.43 6143464.55 454.24 1 1 2
309264.41 6143464.39 454.13 1 1 2
309264.40 6143464.23 454.07 1 1 1
309265.08 6143463.94 461.18 2 1 5
309264.39 6143464.06 454.04 2 2 1
309264.37 6143463.90 454.00 1 1 1
309265.06 6143463.63 461.16 2 1 5
309264.34 6143463.74 453.78 2 2 2
309265.06 6143463.47 461.20 2 1 5
309264.32 6143463.59 453.61 2 2 2
309265.33 6143463.27 464.05 3 1 5
309265.04 6143463.31 461.12 3 2 5
309264.31 6143463.42 453.57 3 3 2
309265.13 6143463.14 462.12 2 1 5
309264.29 6143463.25 453.55 2 2 2
309265.13 6143462.99 462.20 3 1 5
309264.97 6143463.00 460.53 3 2 5
309264.33 6143463.08 454.01 3 3 1
309265.15 6143462.83 462.50 2 1 5
309264.27 6143462.93 453.48 2 2 2
309265.19 6143462.67 463.02 2 1 5
309264.26 6143462.77 453.49 2 2 2
309264.24 6143462.61 453.32 1 1 2
309264.22 6143462.44 453.24 1 1 2
309264.81 6143462.23 459.31 2 1 5
309264.20 6143462.27 453.18 2 2 2
309264.19 6143462.11 453.12 1 1 2
309264.18 6143461.95 453.09 1 1 2
309264.78 6143461.76 459.29 2 1 5
309264.17 6143461.79 453.04 2 2 2
309264.15 6143461.62 452.99 1 1 2
309264.14 6143461.45 452.98 1 1 2
309264.96 6143461.27 461.45 2 1 5
309264.13 6143461.30 452.95 2 2 2
309264.94 6143461.12 461.35 2 1 5
309264.12 6143461.14 452.95 2 2 2
309264.94 6143460.96 461.36 2 1 5
309264.12 6143460.97 452.99 2 2 2
309264.93 6143460.81 461.42 2 1 5
309264.10 6143460.81 452.97 2 2 2
309264.91 6143460.66 461.24 3 1 5
309264.37 6143460.65 455.77 3 2 5
309264.10 6143460.65 453.00 3 3 2
309264.94 6143460.51 461.69 4 1 5
309264.82 6143460.50 460.43 4 2 5
309264.61 6143460.50 458.31 4 3 5
309264.09 6143460.49 452.98 4 4 2
309264.97 6143460.35 462.04 4 1 5
309264.81 6143460.35 460.46 4 2 5
309264.54 6143460.34 457.63 4 3 5
309264.08 6143460.32 452.96 4 4 2
309264.93 6143460.19 461.70 2 1 5
309264.07 6143460.16 452.95 2 2 2
309264.78 6143460.03 460.27 3 1 5
309264.21 6143460.00 454.45 3 2 1
309264.06 6143459.99 452.96 3 3 2
309264.95 6143459.88 462.15 3 1 5
309264.21 6143459.84 454.59 3 2 1
309264.05 6143459.83 452.93 3 3 2
309264.95 6143459.72 462.14 4 1 5
309264.86 6143459.72 461.30 4 2 5
309264.74 6143459.71 460.11 4 3 5
309264.04 6143459.66 452.92 4 4 2
309264.90 6143459.57 461.73 2 1 5
309264.03 6143459.50 452.93 2 2 2
309264.92 6143459.41 462.09 3 1 5
309264.81 6143459.40 460.99 3 2 5
309264.02 6143459.34 452.92 3 3 2
309264.81 6143459.25 461.06 2 1 5
309264.01 6143459.17 452.89 2 2 2
309264.87 6143459.10 461.69 2 1 5
309264.00 6143459.01 452.92 2 2 2
309264.90 6143458.95 462.14 2 1 5
309264.00 6143458.85 452.97 2 2 2
309264.85 6143458.78 461.71 1 1 5
309264.84 6143458.63 461.72 2 1 5
309263.98 6143458.52 452.97 2 2 2
309264.77 6143458.46 460.93 3 1 5
309264.59 6143458.44 459.12 3 2 5
309263.98 6143458.36 452.96 3 3 2
309264.76 6143458.31 460.96 2 1 5
309263.97 6143458.19 452.99 2 2 2
309264.45 6143458.10 457.95 2 1 5
309263.96 6143458.02 452.97 2 2 2
309264.76 6143457.99 461.08 5 1 5
309264.66 6143457.98 460.10 5 2 5
309264.51 6143457.96 458.59 5 3 5
309264.28 6143457.92 456.29 5 4 5
309263.95 6143457.86 452.97 5 5 2
309264.79 6143457.84 461.46 2 1 5
309264.68 6143457.82 460.43 2 2 5
309264.75 6143457.68 461.18 3 1 5
309264.23 6143457.59 455.94 3 2 5
309263.94 6143457.53 453.04 3 3 2
309264.76 6143457.52 461.33 4 1 5
309264.44 6143457.47 458.10 4 2 5
309264.28 6143457.44 456.57 4 3 5
309263.93 6143457.37 453.04 4 4 2
309264.73 6143457.36 461.18 3 1 5
309264.35 6143457.29 457.33 3 2 5
309263.93 6143457.21 453.06 3 3 2
309264.69 6143457.20 460.82 4 1 5
309264.14 6143457.09 455.35 4 2 5
309264.00 6143457.06 453.91 4 3 1
309263.91 6143457.04 453.03 4 4 2
309264.69 6143457.04 460.92 3 1 5
309264.01 6143456.90 454.04 3 2 1
309263.91 6143456.88 453.08 3 3 2
309264.68 6143456.89 460.96 4 1 5
309264.16 6143456.77 455.66 4 2 5
309263.97 6143456.73 453.80 4 3 1
309263.90 6143456.71 453.07 4 4 2
309264.75 6143456.75 461.74 5 1 5
309264.67 6143456.73 460.88 5 2 5
309264.14 6143456.61 455.60 5 3 5
309264.00 6143456.58 454.15 5 4 1
309263.90 6143456.55 453.16 5 5 1
309264.71 6143456.59 461.42 5 1 5
309264.62 6143456.57 460.49 5 2 5
309264.12 6143456.44 455.49 5 3 5
309263.96 6143456.40 453.88 5 4 1
309263.88 6143456.39 453.06 5 5 2
309264.72 6143456.44 461.59 3 1 5
309264.22 6143456.32 456.60 3 2 5
309263.87 6143456.22 453.04 3 3 2
309264.23 6143456.15 456.79 3 1 5
309264.19 6143456.15 456.35 3 2 5
309263.88 6143456.06 453.22 3 3 1
309264.37 6143456.03 458.28 3 1 5
309264.09 6143455.95 455.38 3 2 5
309263.86 6143455.90 453.14 3 3 2
309264.40 6143455.88 458.64 2 1 5
309263.87 6143455.74 453.29 2 2 1
309264.44 6143455.74 459.12 4 1 5
309264.33 6143455.71 458.02 4 2 5
309264.12 6143455.65 455.94 4 3 5
309263.84 6143455.57 453.09 4 4 2
309264.37 6143455.56 458.48 4 1 5
309264.25 6143455.53 457.30 4 2 5
309264.09 6143455.48 455.73 4 3 5
309263.82 6143455.40 453.04 4 4 2
309264.40 6143455.41 458.86 3 1 5
309264.12 6143455.33 456.07 3 2 5
309263.81 6143455.24 453.02 3 3 2
309263.80 6143455.07 452.95 1 1 2
309264.41 6143455.11 459.11 2 1 5
309267.51 6143496.97 465.21 3 1 5
309267.47 6143496.89 464.81 3 1 5
309267.43 6143496.80 464.49 4 1 5
309267.42 6143496.64 464.47 2 1 5
309267.47 6143496.36 465.09 3 1 5
309267.26 6143496.84 462.74 3 2 5
309267.45 6143496.22 464.97 2 1 5
309267.33 6143496.33 463.67 3 1 5
309267.26 6143496.48 462.92 3 2 5
309267.24 6143496.35 462.78 2 1 5
309267.26 6143496.11 463.16 2 1 5
309267.25 6143495.95 463.13 2 1 5
309266.86 6143496.89 458.56 2 2 2
309266.85 6143496.71 458.56 1 1 2
309266.84 6143496.55 458.61 1 1 2
309266.84 6143496.36 458.71 1 1 2
309266.83 6143496.20 458.69 1 1 2
309266.82 6143496.04 458.67 1 1 2
309266.81 6143495.88 458.63 1 1 2
309266.80 6143495.72 458.63 1 1 2
309266.79 6143495.54 458.65 1 1 2
309266.78 6143495.38 458.65 1 1 2
309266.77 6143495.23 458.63 1 1 2
309266.76 6143495.07 458.56 1 1 2
309266.75 6143494.92 458.52 1 1 2
309266.74 6143494.75 458.50 1 1 2
309266.74 6143494.58 458.53 1 1 2
309266.73 6143494.42 458.53 1 1 2
309266.72 6143494.25 458.55 1 1 2
309267.18 6143493.10 463.85 2 1 5
309266.72 6143494.08 458.58 2 2 2
309267.20 6143492.87 464.20 2 1 5
309266.70 6143493.91 458.57 2 2 2
309267.21 6143492.68 464.37 2 1 5
309266.69 6143493.76 458.54 2 2 2
309267.20 6143492.52 464.39 2 1 5
309266.68 6143493.60 458.52 2 2 2
309267.18 6143492.38 464.31 2 1 5
309266.67 6143493.44 458.51 2 2 2
309267.16 6143492.25 464.12 3 1 5
309266.82 6143492.96 460.28 3 2 1
309266.66 6143493.28 458.47 3 3 2
309266.65 6143493.11 458.46 1 1 2
309266.65 6143492.94 458.57 1 1 2
309266.63 6143492.79 458.47 1 1 2
309267.35 6143491.17 466.62 2 1 5
309266.62 6143492.64 458.41 2 2 2
309267.36 6143490.98 466.83 2 1 5
309266.61 6143492.48 458.41 2 2 2
309267.36 6143490.80 466.94 2 1 5
309266.60 6143492.31 458.38 2 2 2
309267.35 6143490.63 466.98 2 1 5
309266.59 6143492.15 458.38 2 2 2
309267.31 6143490.56 466.56 3 1 5
309267.23 6143490.71 465.68 3 2 5
309266.58 6143491.98 458.42 3 3 2
309267.26 6143490.47 466.15 3 1 5
309266.90 6143491.18 462.05 3 2 5
309266.57 6143491.82 458.39 3 3 2
309267.32 6143490.18 466.90 3 1 5
309266.88 6143491.05 461.90 3 2 5
309266.57 6143491.65 458.42 3 3 2
309267.34 6143489.99 467.17 2 1 5
309266.87 6143490.89 461.91 2 2 5
309267.32 6143489.83 467.14 3 1 5
309266.82 6143490.80 461.50 3 2 5
309266.55 6143491.33 458.39 3 3 2
309267.30 6143489.70 467.00 2 1 5
309266.54 6143491.17 458.37 2 2 2
309267.30 6143489.53 467.10 3 1 5
309267.14 6143489.85 465.25 3 2 5
309266.52 6143491.02 458.34 3 3 2
309267.28 6143489.40 466.94 3 1 5
309266.79 6143490.33 461.41 3 2 5
309266.52 6143490.84 458.36 3 3 2
309267.24 6143489.31 466.56 3 1 5
309266.81 6143490.12 461.70 3 2 5
309266.51 6143490.68 458.35 3 3 1
309267.21 6143489.19 466.33 4 1 5
309267.10 6143489.39 465.11 4 2 5
309266.94 6143489.69 463.29 4 3 5
309266.50 6143490.52 458.36 4 4 1
309267.10 6143489.22 465.22 2 1 5
309266.49 6143490.35 458.39 2 2 1
309267.21 6143488.84 466.55 3 1 5
309267.09 6143489.07 465.21 3 2 5
309266.49 6143490.18 458.41 3 3 1
309267.15 6143488.78 465.98 2 1 5
309266.48 6143490.01 458.44 2 2 1
309267.15 6143488.61 466.10 4 1 5
309266.66 6143489.51 460.56 4 2 5
309266.57 6143489.67 459.50 4 3 5
309266.48 6143489.85 458.49 4 4 1
309267.16 6143488.43 466.19 3 1 5
309267.07 6143488.59 465.22 3 2 5
309266.47 6143489.67 458.51 3 3 1
309267.20 6143488.18 466.82 1 1 5
309267.21 6143487.99 467.02 3 1 5
309267.10 6143488.19 465.75 3 2 5
309266.45 6143489.35 458.55 3 3 1
309267.25 6143487.75 467.57 3 1 5
309267.10 6143488.01 465.85 3 2 5
309266.44 6143489.19 458.49 3 3 1
309267.22 6143487.63 467.35 3 1 5
309266.53 6143488.85 459.64 3 2 5
309266.43 6143489.03 458.47 3 3 1
309267.20 6143487.49 467.21 2 1 5
309266.56 6143488.61 460.06 2 2 5
309267.20 6143487.33 467.24 3 1 5
309266.56 6143488.44 460.14 3 2 5
309266.45 6143488.64 458.86 3 3 5
309267.19 6143487.18 467.21 4 1 5
309267.12 6143487.30 466.48 4 2 5
309266.58 6143488.24 460.43 4 3 5
309266.40 6143488.55 458.43 4 4 1
309267.15 6143487.08 466.94 3 1 5
309266.58 6143488.06 460.55 3 2 5
309266.39 6143488.39 458.38 3 3 1
309266.37 6143488.24 458.29 1 1 1
309267.19 6143486.68 467.47 2 1 5
309266.36 6143488.08 458.30 2 2 1
309267.18 6143486.52 467.51 4 1 5
309267.06 6143486.73 466.13 4 2 5
309266.92 6143486.95 464.65 4 3 5
309266.35 6143487.92 458.27 4 4 5
309267.16 6143486.38 467.39 4 1 5
309267.04 6143486.60 465.99 4 2 5
309266.89 6143486.84 464.39 4 3 5
309266.34 6143487.76 458.28 4 4 5
309266.87 6143486.71 464.24 2 1 5
309266.33 6143487.60 458.30 2 2 5
309266.88 6143486.50 464.49 3 1 5
309266.74 6143486.73 462.95 3 2 5
309266.33 6143487.43 458.30 3 3 5
309267.08 6143486.00 466.82 4 1 5
309266.88 6143486.34 464.56 4 2 5
309266.59 6143486.82 461.31 4 3 5
309266.31 6143487.28 458.26 4 4 5
309267.13 6143485.76 467.46 3 1 5
309266.89 6143486.15 464.78 3 2 5
309266.30 6143487.12 458.25 3 3 5
309267.12 6143485.62 467.38 2 1 5
309266.30 6143486.95 458.26 2 2 5
309267.10 6143485.48 467.24 3 1 5
309266.84 6143485.90 464.37 3 2 5
309266.28 6143486.80 458.18 3 3 5
309267.09 6143485.33 467.21 4 1 5
309266.91 6143485.62 465.21 4 2 5
309266.53 6143486.21 461.09 4 3 5
309266.27 6143486.63 458.21 4 4 5
309267.06 6143485.21 466.99 3 1 5
309266.80 6143485.62 464.17 3 2 5
309266.26 6143486.48 458.12 3 3 5
309267.05 6143485.06 467.00 4 1 5
309266.92 6143485.25 465.60 4 2 5
309266.65 6143485.68 462.62 4 3 5
309266.24 6143486.33 458.03 4 4 5
309267.03 6143484.90 466.92 3 1 5
309266.90 6143485.11 465.48 3 2 5
309266.80 6143485.28 464.30 3 3 5
309267.01 6143484.77 466.76 5 1 5
309266.91 6143484.95 465.59 5 2 5
309266.65 6143485.34 462.78 5 3 5
309266.47 6143485.63 460.72 5 4 5
309266.22 6143486.01 458.05 5 5 5
309266.99 6143484.65 466.56 3 1 5
309266.80 6143484.94 464.50 3 2 5
309266.22 6143485.85 458.05 3 3 5
309266.89 6143484.64 465.53 4 1 5
309266.79 6143484.80 464.40 4 2 5
309266.64 6143485.03 462.75 4 3 5
309266.23 6143485.65 458.26 4 4 5
309266.88 6143484.49 465.45 2 1 5
309266.58 6143484.95 462.19 2 2 5
309266.89 6143484.31 465.72 4 1 5
309266.59 6143484.77 462.34 4 2 5
309266.46 6143484.97 460.88 4 3 5
309266.19 6143485.37 457.92 4 4 5
309266.85 6143484.20 465.31 2 1 5
309266.75 6143484.35 464.26 2 2 5
309266.86 6143484.02 465.55 4 1 5
309266.70 6143484.27 463.72 4 2 5
309266.55 6143484.47 462.16 4 3 5
309266.19 6143485.01 458.19 4 4 5
309266.85 6143483.86 465.53 5 1 5
309266.68 6143484.11 463.68 5 2 5
309266.53 6143484.35 461.96 5 3 5
309266.12 6143484.94 457.53 5 4 5
309266.04 6143485.06 456.60 5 5 1
309266.88 6143483.66 465.89 5 1 5
309266.66 6143483.98 463.56 5 2 5
309266.52 6143484.19 461.94 5 3 5
309266.12 6143484.77 457.57 5 4 5
309266.02 6143484.91 456.50 5 5 1
309266.90 6143483.47 466.19 4 1 5
309266.65 6143483.82 463.54 4 2 5
309266.52 6143484.01 462.07 4 3 5
309266.01 6143484.76 456.45 4 4 1
309266.89 6143483.31 466.19 2 1 5
309265.98 6143484.63 456.19 2 2 1
309266.88 6143483.17 466.20 2 1 5
309265.95 6143484.51 455.98 2 2 1
309266.85 6143483.03 466.01 3 1 5
309266.47 6143483.58 461.82 3 2 5
309265.90 6143484.39 455.57 3 3 1
309266.87 6143482.85 466.24 3 1 5
309266.44 6143483.45 461.58 3 2 5
309265.85 6143484.29 455.14 3 3 1
309266.85 6143482.70 466.21 4 1 5
309266.65 6143482.99 463.96 4 2 5
309266.43 6143483.29 461.59 4 3 5
309265.84 6143484.12 455.09 4 4 1
309266.85 6143482.54 466.21 4 1 5
309266.43 6143483.12 461.69 4 2 5
309266.04 6143483.67 457.40 4 3 5
309265.83 6143483.97 455.02 4 4 1
309266.79 6143482.46 465.68 3 1 5
309266.41 6143482.99 461.47 3 2 5
309265.81 6143483.83 454.90 3 3 1
309266.75 6143482.34 465.33 2 1 5
309265.79 6143483.66 454.84 2 2 1
309266.70 6143482.25 464.90 3 1 5
309266.40 6143482.66 461.58 3 2 5
309265.77 6143483.53 454.66 3 3 1
309266.77 6143481.99 465.74 3 1 5
309266.39 6143482.50 461.63 3 2 5
309265.75 6143483.36 454.59 3 3 1
309266.75 6143481.84 465.67 3 1 5
309266.40 6143482.32 461.76 3 2 5
309265.73 6143483.22 454.45 3 3 1
309266.74 6143481.70 465.56 2 1 5
309265.71 6143483.07 454.32 2 2 2
309266.71 6143481.56 465.38 2 1 5
309265.69 6143482.92 454.19 2 2 2
309265.67 6143482.76 454.14 1 1 2
309265.66 6143482.61 454.07 1 1 2
309265.65 6143482.44 454.06 1 1 1
309265.64 6143482.28 454.03 1 1 1
309265.62 6143482.13 453.93 1 1 1
309265.60 6143481.97 453.87 1 1 1
309265.59 6143481.81 453.81 1 1 1
309265.57 6143481.66 453.68 1 1 2
309265.56 6143481.49 453.66 1 1 2
309265.54 6143481.34 453.61 1 1 2
309266.59 6143479.90 465.07 2 1 5
309265.53 6143481.18 453.58 2 2 2
309265.52 6143481.02 453.52 1 1 2
309266.05 6143480.20 459.40 2 1 5
309265.50 6143480.86 453.44 2 2 2
309265.50 6143480.69 453.50 1 1 2
309266.05 6143479.86 459.63 3 1 5
309265.70 6143480.28 455.74 3 2 5
309265.49 6143480.52 453.52 3 3 2
309265.71 6143480.09 455.97 2 1 5
309265.48 6143480.36 453.46 2 2 2
309265.71 6143479.91 456.09 2 1 5
309265.49 6143480.16 453.73 2 2 1
309266.42 6143478.95 463.83 2 1 5
309265.48 6143480.00 453.74 2 2 1
309266.40 6143478.80 463.75 3 1 5
309266.23 6143478.99 461.90 3 2 5
309265.48 6143479.83 453.80 3 3 1
309266.40 6143478.63 463.84 2 1 5
309265.47 6143479.66 453.79 2 2 1
309266.44 6143478.43 464.33 4 1 5
309266.37 6143478.50 463.61 4 2 5
309266.11 6143478.79 460.74 4 3 5
309265.46 6143479.51 453.71 4 4 2
309266.44 6143478.26 464.44 4 1 5
309266.10 6143478.64 460.74 4 2 5
309265.69 6143479.08 456.33 4 3 5
309265.44 6143479.34 453.70 4 4 2
309266.42 6143478.11 464.37 4 1 5
309266.20 6143478.35 461.98 4 2 5
309265.70 6143478.90 456.50 4 3 5
309265.44 6143479.17 453.76 4 4 2
309266.30 6143478.09 463.08 3 1 5
309265.69 6143478.74 456.54 3 2 5
309265.43 6143479.01 453.77 3 3 2
309265.69 6143478.57 456.60 2 1 5
309265.43 6143478.85 453.80 2 2 2
309265.68 6143478.40 456.65 2 1 5
309265.41 6143478.68 453.75 2 2 2
309265.99 6143477.91 460.10 3 1 5
309265.69 6143478.22 456.77 3 2 5
309265.42 6143478.50 453.90 3 3 2
309265.98 6143477.75 459.99 1 1 5
309265.93 6143477.63 459.64 2 1 5
309265.38 6143478.20 453.69 2 2 2
309266.14 6143477.25 461.99 2 1 5
309265.89 6143477.51 459.23 2 2 5
309266.20 6143477.03 462.66 2 1 5
309265.83 6143477.40 458.71 2 2 5
309266.15 6143476.92 462.19 3 1 5
309265.74 6143477.32 457.85 3 2 5
309265.36 6143477.69 453.77 3 3 2
309266.16 6143476.73 462.43 3 1 5
309265.69 6143477.19 457.44 3 2 5
309265.35 6143477.53 453.76 3 3 2
309266.15 6143476.58 462.37 2 1 5
309265.34 6143477.36 453.76 2 2 2
309266.11 6143476.46 462.10 2 1 5
309265.34 6143477.20 453.78 2 2 2
309266.10 6143476.31 461.96 2 1 5
309265.33 6143477.04 453.76 2 2 2
309265.32 6143476.87 453.70 1 1 2
309265.31 6143476.71 453.72 1 1 2
309265.31 6143476.55 453.72 1 1 2
309265.99 6143475.75 461.17 1 1 5
309265.29 6143476.21 453.77 1 1 2
309265.30 6143476.04 453.94 1 1 1
309265.29 6143475.87 453.94 1 1 1
309265.27 6143475.72 453.87 1 1 2
309266.33 6143474.63 465.25 2 1 5
309265.27 6143475.55 453.93 2 2 1
309265.27 6143475.37 454.01 1 1 1
309266.25 6143474.38 464.60 2 1 5
309265.26 6143475.22 454.00 2 2 1
309266.28 6143474.19 464.95 2 1 5
309265.25 6143475.05 453.97 2 2 2
309266.28 6143474.03 465.06 2 1 5
309265.24 6143474.88 454.01 2 2 1
309266.27 6143473.87 465.06 2 1 5
309265.23 6143474.73 453.97 2 2 2
309266.25 6143473.74 464.94 2 1 5
309265.22 6143474.56 453.94 2 2 2
309265.61 6143474.08 458.21 2 1 5
309265.21 6143474.40 453.93 2 2 2
309266.32 6143473.36 465.84 4 1 5
309265.81 6143473.75 460.45 4 2 5
309265.68 6143473.86 458.99 4 3 5
309265.19 6143474.24 453.87 4 4 2
309266.32 6143473.20 465.88 4 1 5
309265.81 6143473.60 460.46 4 2 5
309265.66 6143473.71 458.96 4 3 5
309265.18 6143474.08 453.77 4 4 2
309265.80 6143473.44 460.49 3 1 5
309265.71 6143473.50 459.54 3 2 5
309265.17 6143473.92 453.78 3 3 2
309265.70 6143473.35 459.57 2 1 5
309265.15 6143473.76 453.74 2 2 2
309265.68 6143473.20 459.37 2 1 5
309265.15 6143473.59 453.81 2 2 2
309265.15 6143473.42 453.89 1 1 2
309265.14 6143473.25 453.85 1 1 2
309265.76 6143472.65 460.52 1 1 5
309265.73 6143472.50 460.27 2 1 5
309265.12 6143472.94 453.80 2 2 2
309265.68 6143472.37 459.86 2 1 5
309265.11 6143472.77 453.85 2 2 2
309265.11 6143472.60 453.89 1 1 2
309265.72 6143472.02 460.48 2 1 5
309265.10 6143472.43 453.86 2 2 2
309265.72 6143471.85 460.50 2 1 5
309265.09 6143472.27 453.91 2 2 2
309265.70 6143471.70 460.42 2 1 5
309265.09 6143472.10 454.04 2 2 2
309265.67 6143471.56 460.23 2 1 5
309265.10 6143471.93 454.19 2 2 2
309265.66 6143471.41 460.16 2 1 5
309265.08 6143471.77 454.07 2 2 2
309265.62 6143471.26 459.86 2 1 5
309265.08 6143471.60 454.17 2 2 2
309265.65 6143471.08 460.23 2 1 5
309265.08 6143471.43 454.26 2 2 2
309265.07 6143471.26 454.29 1 1 2
309265.07 6143471.10 454.33 1 1 2
309265.06 6143470.94 454.37 1 1 2
309265.28 6143470.65 456.74 2 1 5
309265.06 6143470.76 454.47 2 2 2
309265.06 6143470.60 454.54 1 1 2
309265.27 6143470.31 456.87 2 1 5
309265.05 6143470.43 454.52 2 2 2
309265.78 6143469.87 462.30 3 1 5
309265.27 6143470.15 456.90 3 2 5
309265.05 6143470.27 454.63 3 3 2
309265.32 6143469.96 457.50 2 1 5
